ply
format ascii 1.0
comment Created by CloudCompare v2.11.1 (Anoia)
comment Created 01/10/22 18:17
obj_info Generated by CloudCompare!
element vertex 1502
property float x
property float y
property float z
end_header
-0.0276254 0.155162 -0.00577751 
0.0411177 0.103047 0.000869812 
-0.0616354 0.174387 -0.0580446 
-0.0503173 0.0537919 0.0153189 
-0.0499809 0.0520685 0.016993 
-0.0173559 0.0387939 -0.0146788 
0.0271923 0.0440114 0.0356674 
0.026677 0.043492 0.0358915 
-0.0915884 0.140998 0.0190793 
-0.0915446 0.140723 0.0188049 
0.0449018 0.0932215 0.00383371 
0.04472 0.0941031 0.00401848 
0.0414343 0.0816863 -0.00801536 
-0.0895024 0.0965303 0.0122969 
0.0316128 0.0514287 -0.0100969 
0.0414324 0.0816057 -0.00797964 
0.0414129 0.0815795 -0.00801267 
-0.0892565 0.141495 0.0331969 
0.0328377 0.0537051 -0.0104237 
0.033115 0.0534853 -0.0098249 
0.0303274 0.0710826 -0.0204036 
-0.0913976 0.143078 0.0158498 
0.0135635 0.035358 0.0036361 
-0.061546 0.146681 -0.00413425 
-0.0617683 0.157923 -0.0218115 
-0.0124362 0.0347441 0.0468112 
0.0448777 0.0857316 0.0006522 
-0.0616141 0.156909 -0.0220575 
-0.0617413 0.158339 -0.0225814 
-0.062366 0.16139 -0.0411297 
-0.0624049 0.161501 -0.0415158 
0.0427936 0.0999183 0.00333594 
-0.0624471 0.160243 -0.0409195 
-0.0622274 0.162638 -0.0411761 
-0.0623378 0.162014 -0.041505 
-0.0623017 0.161855 -0.041055 
-0.0623431 0.164384 -0.0414814 
-0.0622519 0.163552 -0.0409579 
0.00657766 0.0344958 -0.0213279 
0.00613662 0.0343331 -0.0211246 
-0.062614 0.16529 -0.0406782 
-0.0627547 0.165784 -0.0409356 
-0.0625952 0.165468 -0.0412928 
0.059924 0.0636624 0.00694053 
0.0598123 0.0644633 0.00704487 
-0.077306 0.173278 -0.0402319 
-0.0878774 0.0864571 0.0162167 
0.059353 0.066275 0.00685164 
0.0593165 0.0653234 0.00627165 
0.0445864 0.084798 0.0002129 
0.0286637 0.0663758 -0.0202722 
0.039691 0.107391 0.0128631 
0.0450077 0.0863554 0.00115742 
-0.061634 0.15829 -0.0240523 
-0.0937808 0.127135 0.0242413 
0.0430018 0.100773 0.00904793 
-0.00647388 0.0339423 -0.0206408 
-0.00684662 0.0339936 -0.0199575 
-0.0319301 0.173636 -0.0154625 
-0.0317202 0.173324 -0.0157262 
-0.087497 0.085997 0.0193259 
-0.0873891 0.0857303 0.0188543 
-0.0899387 0.116232 0.0053428 
-0.0907036 0.130747 0.0353755 
0.0207873 0.113215 -0.014069 
0.0147717 0.0934715 -0.0258757 
-0.093932 0.12695 0.0237465 
-0.0938707 0.127354 0.0235583 
-0.0931764 0.129317 0.0241355 
-0.00176276 0.0343355 -0.0228806 
-0.00181019 0.034072 -0.0223031 
0.00227872 0.0345495 -0.0226309 
-0.065585 0.14923 -0.0314984 
-0.0935943 0.128368 0.0236185 
-0.0277294 0.0383525 -0.00127883 
-0.0275056 0.0383268 -0.000915925 
0.00682265 0.0939194 -0.0305994 
-0.050492 0.0489919 0.0186772 
0.0176407 0.0885483 -0.027338 
0.017581 0.0887024 -0.0273247 
0.0249623 0.0561097 -0.0229833 
0.0247915 0.0551479 -0.0227774 
-0.0886968 0.145053 0.0102868 
-0.0892027 0.148374 0.010681 
-0.0893622 0.14869 0.0110146 
0.0350748 0.0769727 -0.015401 
0.0351136 0.0771664 -0.0154212 
0.0362753 0.079005 -0.0148931 
-0.0930156 0.122814 0.0396164 
-0.0907709 0.145459 0.0149594 
-0.0231285 0.0955526 -0.0271838 
-0.0229379 0.0958806 -0.0263819 
-0.0418357 0.128201 0.00070634 
0.00556791 0.0392352 0.0304105 
0.00647909 0.0918229 -0.0322336 
-0.0217488 0.164338 -0.01669 
-0.0903012 0.138514 0.0154747 
-0.0210685 0.0821792 0.0563916 
0.0232264 0.0386544 0.0360071 
0.0237884 0.0390237 0.0355373 
0.0214256 0.0372414 0.0370198 
0.0241033 0.0393731 0.0354635 
0.0243173 0.0396582 0.0354171 
0.0240204 0.0395858 0.0360883 
0.0239828 0.0395133 0.0360375 
0.0255465 0.0417878 0.0360609 
0.0253496 0.0412133 0.0355395 
0.0248621 0.0406062 0.0358833 
0.0254201 0.0430699 0.037662 
0.0255895 0.043316 0.0375627 
-0.038467 0.0667074 -0.0148475 
-0.0381029 0.0667076 -0.0149217 
0.0333221 0.0605669 -0.0157562 
0.0332587 0.059924 -0.0155508 
0.00831723 0.0621618 0.0548323 
0.00820755 0.0622745 0.0549241 
-0.0633938 0.151627 -0.0308901 
-0.0633159 0.151635 -0.030573 
0.0341771 0.0624771 -0.0152351 
-0.062324 0.157311 -0.0178452 
-0.0621537 0.156859 -0.0178456 
-0.089127 0.139214 0.01219 
-0.0887479 0.139566 0.0116462 
0.0108092 0.0900662 0.0540296 
0.0106993 0.0897597 0.0541938 
0.0107352 0.0896291 0.05423 
0.0106158 0.0896564 0.0542574 
0.0427618 0.089317 0.0267939 
0.0460736 0.0790782 0.0191729 
0.0300222 0.0574931 -0.017147 
0.0301158 0.0572648 -0.0169511 
-0.0401367 0.15129 0.00396116 
0.0294425 0.0539993 -0.0174181 
0.0296454 0.0539905 -0.0169529 
0.0295321 0.0560827 -0.01732 
0.0296815 0.0556845 -0.0170796 
-0.0909429 0.150071 0.0175337 
-0.0180918 0.159269 -0.0096749 
0.0329122 0.0735152 -0.0177697 
0.033409 0.0691003 -0.0172689 
0.0336941 0.0695677 -0.0170299 
-0.0924412 0.131564 0.015535 
-0.0903459 0.136765 0.0154516 
-0.0620311 0.157797 -0.0199807 
-0.0889827 0.135567 0.0402674 
0.0216377 0.0422987 -0.0149275 
0.0219941 0.0429997 -0.0149148 
0.0227987 0.0443722 -0.0148472 
0.0198406 0.039498 -0.0154839 
0.0196032 0.0391971 -0.0156231 
0.0213519 0.0417017 -0.0148184 
0.0210332 0.0412329 -0.0149719 
0.0209793 0.0411993 -0.0151201 
0.0206255 0.0407998 -0.0155729 
0.0208363 0.0411074 -0.0155027 
-0.0921273 0.132483 0.0163503 
-0.0920298 0.132673 0.0168838 
-0.0355961 0.0696829 -0.0168786 
-0.0349555 0.0696996 -0.0174335 
-0.0374119 0.0344327 0.0327397 
0.00189837 0.0344872 -0.0225677 
-0.0773615 0.0701158 0.00465296 
-0.0770017 0.0697355 0.00455715 
-0.0552287 0.0896953 -0.0221357 
-0.0589642 0.15706 0.00379612 
-0.0591028 0.156876 0.00403899 
-0.0853788 0.0821605 0.00523203 
-0.0851508 0.0820681 0.00469073 
0.0334206 0.0533282 -0.00919218 
0.0334238 0.0533389 -0.0091991 
0.033938 0.0539268 -0.00912152 
0.0336481 0.0533274 -0.00888381 
0.0354977 0.0555598 -0.00877238 
0.0342043 0.0547645 -0.0096511 
0.0348172 0.0555102 -0.00965906 
0.0364734 0.0557921 -0.00744347 
0.0370133 0.0557662 -0.00648395 
0.036401 0.0563471 -0.00811158 
0.0362886 0.0563903 -0.0083547 
-0.0129913 0.183083 -0.0281839 
-0.0256376 0.0382131 0.00449733 
-0.0366799 0.0779855 -0.019453 
-0.0360928 0.0771582 -0.0193067 
-0.0605178 0.0475933 0.00490088 
-0.0606929 0.0475085 0.00519743 
-0.0596271 0.0479155 0.00469668 
0.0376046 0.0995122 -0.0092737 
-0.0881449 0.0914086 0.00616969 
0.038764 0.0978109 -0.00785036 
-0.0930103 0.119815 0.0344353 
0.0482682 0.0442161 0.00369622 
0.0487421 0.044376 0.00403287 
0.0482184 0.0440595 0.00402462 
-0.0332234 0.15327 -0.00594437 
-0.0939551 0.119055 0.0205979 
0.0191801 0.036718 -0.00979939 
0.0223586 0.0418446 -0.00984672 
0.023108 0.0426192 -0.00989271 
0.0230706 0.0428484 -0.0103165 
0.0216716 0.0406822 -0.0101044 
0.021727 0.0409374 -0.0102898 
0.0259484 0.0448486 -0.0100341 
0.0248051 0.0439845 -0.00985662 
0.0263201 0.045037 -0.0097069 
0.0221255 0.0416755 -0.0101594 
0.0229527 0.04287 -0.0105422 
0.0417974 0.0844991 -0.00836104 
0.0417576 0.0855298 -0.00860684 
0.0251052 0.044374 -0.0104676 
0.0242202 0.0436784 -0.0101618 
0.0259058 0.0449703 -0.0106537 
-0.0725659 0.150348 -0.0393876 
-0.0724681 0.150453 -0.0398894 
0.0419996 0.0872073 -0.00831367 
0.0420505 0.0867993 -0.00814908 
0.0417304 0.0909836 -0.00807603 
-0.0338528 0.100191 -0.0225378 
-0.0340701 0.052046 -0.0102544 
0.0411031 0.0909843 -0.00919318 
0.0407248 0.0912391 -0.00951759 
-0.0847798 0.0798669 0.00474861 
-0.0822401 0.0746915 0.00462136 
-0.0821127 0.0745265 0.00547193 
-0.0857762 0.108366 0.0075125 
-0.085763 0.108553 0.00762565 
-0.0859622 0.108315 0.00805512 
-0.088881 0.112478 0.00882294 
-0.0890311 0.112783 0.00846951 
-0.0859733 0.109453 0.00804399 
0.060464 0.0648 0.00954335 
0.0606906 0.0638181 0.00967231 
0.0605806 0.0647188 0.00996899 
-0.0377087 0.150736 0.00128757 
-0.0371344 0.150926 0.00084224 
-0.0379839 0.152119 0.00275787 
-0.0347554 0.0345346 0.0297219 
-0.0349268 0.034452 0.0294926 
-0.0928044 0.130455 0.0238852 
0.0410267 0.0808204 -0.00846773 
-0.00939922 0.167598 -0.0221151 
0.0326679 0.0532324 -0.0102297 
0.0326198 0.0534431 -0.0105558 
0.0409632 0.0799663 -0.00819359 
-0.0911941 0.143481 0.0155122 
0.0338962 0.0547236 -0.00998783 
0.034574 0.0555145 -0.00996054 
0.0213072 0.0971719 -0.0221396 
-0.0690126 0.11328 0.0482537 
-0.068651 0.113721 0.0486703 
-0.0124306 0.163323 -0.0141195 
-0.0121075 0.163637 -0.0139967 
0.0270015 0.0433649 0.0353016 
0.0261023 0.0422426 0.0354034 
-0.00353719 0.0343684 -0.0232981 
-0.00363613 0.0339364 -0.0224892 
-0.0636795 0.163573 -0.0257581 
-0.0637168 0.163812 -0.0263664 
0.0453659 0.0921172 0.0113674 
0.0451382 0.0931481 0.0119526 
-0.0625085 0.160908 -0.0237085 
-0.0627595 0.161519 -0.0238631 
0.0596747 0.0564731 0.0118181 
-0.0620126 0.159752 -0.0238107 
-0.0619345 0.159396 -0.0236226 
-0.0625125 0.161082 -0.0243267 
-0.0457461 0.0362469 -0.0211656 
-0.0459531 0.0354756 -0.0206333 
-0.0617259 0.15884 -0.0239516 
-0.0435434 0.128409 0.000753679 
-0.0909379 0.149339 0.0150238 
-0.0400604 0.0359503 0.0427509 
-0.0631053 0.158171 -0.0417923 
-0.0636876 0.156868 -0.0420019 
-0.0636156 0.157222 -0.0425141 
-0.0627642 0.159431 -0.0419507 
-0.0626997 0.159511 -0.0416131 
-0.0630178 0.158626 -0.0422469 
-0.0628968 0.158984 -0.0420672 
-0.0624586 0.160952 -0.0418361 
-0.0624651 0.160938 -0.0417643 
-0.0624829 0.160895 -0.0425202 
-0.0625446 0.160344 -0.0420081 
-0.00498933 0.0341549 -0.0230933 
-0.0047611 0.0344727 -0.0235806 
-0.0903536 0.138819 0.0156056 
0.0202291 0.0372379 -0.00633946 
0.0202528 0.0373359 -0.00654481 
0.030944 0.0959766 -0.0165428 
-0.0939 0.12491 0.015358 
-0.0879417 0.147125 0.00895782 
-0.0878857 0.14703 0.00890801 
0.037512 0.0659132 -0.0125035 
0.0378237 0.0661792 -0.0122384 
0.030619 0.0962164 -0.0166968 
-0.0110514 0.167957 -0.023278 
-0.0928223 0.130559 0.0235003 
-0.092717 0.130886 0.0233477 
-0.0273707 0.121793 -0.00728662 
-0.0622788 0.162872 -0.0422909 
-0.0623084 0.162159 -0.042402 
-0.0650098 0.0388693 0.0273523 
-0.0649954 0.0394526 0.0280754 
-0.065036 0.0388057 0.0273136 
-0.0642006 0.0391356 0.026376 
-0.0623396 0.162074 -0.0416303 
-0.0623806 0.161721 -0.0417111 
-0.0623562 0.1645 -0.0422724 
-0.0915822 0.130138 0.00883255 
-0.0916288 0.130044 0.00892663 
-0.0623437 0.164233 -0.0417909 
-0.0622835 0.163824 -0.0416236 
-0.0886067 0.100123 0.00846609 
-0.0612661 0.14509 -0.00442325 
-0.0897148 0.147339 0.0110494 
-0.0880598 0.143784 0.0103659 
-0.0879664 0.143753 0.0102345 
0.0346343 0.0759195 -0.0156758 
0.0348781 0.0757236 -0.0153311 
0.0353963 0.0777283 -0.0152958 
0.035532 0.0776051 -0.015109 
-0.0909833 0.14378 0.0151561 
-0.0930774 0.125071 0.0113944 
-0.0385587 0.0683223 -0.015596 
-0.0882696 0.143153 0.0112605 
0.0521818 0.0630132 -0.00223565 
0.016334 0.0948683 -0.0240686 
-0.086436 0.0835458 0.00878432 
-0.086772 0.0845952 0.00848911 
-0.0917651 0.120229 0.0079692 
-0.0627303 0.166008 -0.0418345 
-0.0623934 0.164808 -0.0423857 
0.0232589 0.038233 0.0344933 
0.024054 0.0390062 0.0345979 
0.0218722 0.0372512 0.0354359 
0.0249052 0.040111 0.0346597 
0.0244743 0.0394417 0.0343849 
0.0242987 0.0392968 0.0345432 
0.0244371 0.0396736 0.0350136 
0.0265232 0.0420441 0.0343953 
0.0257573 0.0411981 0.0346184 
0.0255008 0.0408129 0.0345751 
0.0256473 0.0414162 0.0351682 
-0.0517046 0.149801 0.0153168 
0.0582911 0.0577463 0.0223321 
0.0581677 0.0573337 0.0223908 
0.0222926 0.0437521 -0.015249 
0.0219409 0.0431132 -0.0155731 
-0.0867641 0.0845351 0.00881716 
0.0440856 0.0974882 0.0115476 
-0.0861177 0.0807109 0.00869481 
-0.091622 0.122296 0.00729002 
-0.0915538 0.121762 0.0072897 
-0.0855049 0.0792568 0.00927894 
-0.0863243 0.0821683 0.00897444 
-0.0203017 0.0912824 -0.0358707 
-0.0863966 0.0830011 0.00925962 
-0.0863653 0.0826168 0.0091283 
-0.00446555 0.109768 -0.0219191 
-0.0863034 0.0817934 0.00910535 
0.0538826 0.0706416 0.00434684 
-0.0236646 0.114919 -0.0157026 
-0.0210561 0.0907914 -0.036063 
-0.021328 0.0907795 -0.0360308 
-0.0923294 0.11682 0.0345135 
0.0351354 0.103223 -0.0106981 
0.0352741 0.103177 -0.0105582 
-0.0895095 0.151565 0.0180658 
-0.0229299 0.11572 -0.0150614 
-0.0875788 0.0885846 0.0234903 
-0.0895798 0.13732 0.0368574 
-0.0609656 0.169638 -0.0594346 
-0.0610089 0.170946 -0.0594814 
-0.0610307 0.17062 -0.0592692 
0.0151521 0.0376992 -0.0208532 
0.0225522 0.0380431 -0.00401756 
-0.0325669 0.0581851 -0.0123282 
-0.0527388 0.142653 -0.000337391 
-0.0910532 0.145252 0.0157874 
-0.0728845 0.150162 -0.0381612 
-0.0728972 0.150193 -0.0381253 
-0.0912272 0.146886 0.0160023 
-0.0255828 0.158089 -0.0110207 
-0.0651273 0.156892 -0.0525914 
0.0454726 0.0867262 0.0038432 
-0.0096048 0.170729 -0.0262935 
0.0455552 0.0804589 0.00233499 
0.0405068 0.0884433 -0.010705 
0.0407084 0.0880072 -0.0105211 
0.0409692 0.0890897 -0.00994593 
0.0411541 0.0873044 -0.00995484 
0.0404559 0.0897378 -0.0104438 
0.0402837 0.0897672 -0.0106429 
0.0354404 0.0559689 -0.00929965 
0.0360243 0.0572951 -0.00967855 
0.0358959 0.0563497 -0.00898747 
0.0390325 0.0642691 -0.00937007 
0.0387996 0.0642486 -0.00975231 
0.0387325 0.0639313 -0.00974232 
0.00441717 0.130617 0.00221916 
0.0356664 0.0538779 -0.00696013 
0.0163585 0.0972098 -0.0231185 
0.0168599 0.0968808 -0.0231583 
-0.0014426 0.109806 -0.0209122 
-0.0905025 0.132221 0.00698941 
-0.0904598 0.131937 0.0067759 
-0.0911576 0.127543 0.00699567 
0.0383487 0.0991922 -0.00826874 
0.0380295 0.099448 -0.008693 
0.0384635 0.0990934 -0.00809603 
-0.0355052 0.126269 -0.00105512 
-0.0352605 0.126008 -0.00156933 
-0.0638351 0.159949 -0.0561213 
0.042113 0.0893458 -0.00791634 
0.0419414 0.0893166 -0.00829822 
0.0385547 0.0979936 -0.00817785 
0.0418351 0.0876152 -0.00871416 
0.041395 0.0912465 -0.00866723 
0.0419362 0.0867788 -0.00843086 
0.0418475 0.0859279 -0.0084859 
0.0417732 0.0890385 -0.00873338 
0.0417063 0.0895726 -0.00876798 
0.0427957 0.100265 0.00404633 
0.0419719 0.0886854 -0.00836827 
0.059544 0.0597136 0.00618697 
0.0601241 0.0621139 0.00704944 
-0.0344391 0.159011 -0.012537 
-0.0341025 0.158399 -0.0121376 
0.0447246 0.0934342 0.00329458 
0.0446561 0.0940828 0.00368526 
-0.0900327 0.114422 0.00715669 
-0.089411 0.11398 0.00686653 
-0.0903894 0.133172 0.0292299 
-0.090374 0.133151 0.0293247 
-0.0922377 0.131772 0.023695 
0.0596462 0.0569239 0.0100358 
-0.0941155 0.123534 0.0159421 
-0.0504523 0.0532487 0.0148302 
-0.0506816 0.0540163 0.0145839 
-0.0313813 0.0988553 -0.0228716 
-0.0808294 0.074099 0.0191212 
-0.0925006 0.131163 0.0241116 
-0.091628 0.13266 0.0241106 
-0.0915821 0.132925 0.0233256 
-0.0917995 0.132404 0.0241054 
-0.0902823 0.134973 0.0234755 
-0.0901762 0.135105 0.0236573 
-0.0905323 0.134566 0.0234137 
-0.0898633 0.136357 0.0234458 
-0.0899858 0.135908 0.0235144 
0.0423532 0.0841567 -0.00691992 
0.0408085 0.0792129 -0.00821814 
0.0407573 0.0792042 -0.00828074 
-0.0899248 0.137563 0.0233351 
0.0337924 0.0551048 -0.0105276 
0.0339376 0.0551072 -0.0103274 
0.0408389 0.0776906 -0.00789534 
-0.021571 0.157782 -0.00614498 
-0.0210518 0.15813 -0.00576262 
0.0355713 0.0570893 -0.0102342 
0.0357325 0.0569076 -0.00975407 
0.0431643 0.0879926 0.0264658 
-0.0928662 0.11901 0.0336961 
-0.0501792 0.0351182 0.0449181 
-0.089661 0.137034 0.0239545 
0.0589129 0.0543248 0.0119779 
0.058895 0.0542761 0.0119244 
-0.0381544 0.068119 -0.0154967 
-0.0625056 0.148827 -0.0131658 
-0.0624381 0.148909 -0.0126891 
0.0305262 0.0583901 -0.0171504 
0.0304096 0.0582879 -0.0171761 
-0.0626481 0.148048 -0.0132186 
-0.0428678 0.159402 -0.0100653 
0.0325338 0.0606606 -0.0168251 
0.0324199 0.0606066 -0.0169416 
-0.0788585 0.116767 0.0499918 
-0.0789867 0.117028 0.0500307 
0.0156026 0.0387456 -0.0211157 
0.0155041 0.0383213 -0.0209107 
0.0157727 0.0394071 -0.0214257 
-0.0636664 0.168612 -0.043674 
-0.0631322 0.167143 -0.0425644 
0.0594185 0.0654776 0.00661072 
0.0516428 0.0460064 0.0073699 
0.051643 0.0459625 0.00769123 
-0.0871394 0.106256 0.0119995 
0.0590366 0.0669167 0.00636582 
0.0386649 0.108569 0.00456266 
-0.0878028 0.105018 0.0123488 
-0.0132713 0.101603 -0.0239476 
-0.0134907 0.100222 -0.0238385 
-0.013527 0.100289 -0.0238352 
-0.0022493 0.0344788 -0.0231024 
-0.00225016 0.0341987 -0.0226071 
0.0177189 0.0865338 -0.0280237 
-0.0190116 0.109418 -0.020837 
-0.0873161 0.08546 0.008542 
-0.0923656 0.115676 0.0120783 
0.0384997 0.0679524 -0.0120183 
0.0384618 0.0682095 -0.0121165 
0.0199015 0.0393922 -0.0149944 
0.0198305 0.0393084 -0.0150949 
-0.0774101 0.161391 -0.0187347 
0.0370098 0.0738738 -0.0126929 
0.0371825 0.0730672 -0.012716 
0.00717333 0.0931273 -0.0310507 
0.0369531 0.085806 -0.0161201 
0.0369152 0.0864082 -0.0160686 
-0.0919412 0.13173 0.011874 
-0.0920872 0.131385 0.0118291 
-0.00380325 0.111399 -0.020753 
-0.0035274 0.111266 -0.0207794 
-0.000891665 0.0339462 -0.0218796 
-0.00055318 0.0342218 -0.0224945 
-0.0909809 0.132111 0.00827121 
-0.0911084 0.131855 0.00854053 
-0.00922406 0.0384552 0.00959029 
-0.00879296 0.0384714 0.00976158 
0.0411231 0.0392972 0.0149947 
0.0409521 0.0391735 0.0142477 
0.0407495 0.0390538 0.013824 
-0.00113095 0.0376018 0.0471228 
-0.00101435 0.0382732 0.046992 
-0.0908881 0.114347 0.0351425 
-0.0912038 0.114674 0.0353062 
-0.0920224 0.122131 0.00800993 
-0.0920209 0.122031 0.00803177 
-0.0917429 0.117437 0.00800227 
-0.0624076 0.150807 -0.0179102 
0.0251891 0.0637002 -0.0232701 
0.0356079 0.069371 -0.0150779 
0.0351959 0.0707631 -0.0153091 
0.0598543 0.0611693 0.00637279 
0.0598465 0.0614225 0.0063256 
0.059107 0.0555188 0.0101479 
-0.0869861 0.145308 0.00827219 
-0.0872765 0.145516 0.00849868 
0.0403978 0.0641755 -0.00627606 
-0.0619569 0.152978 -0.0176604 
-0.0620475 0.156422 -0.018166 
-0.0919214 0.123905 0.00767135 
-0.0918858 0.123764 0.00761059 
-0.0919681 0.119037 0.00827445 
0.0311898 0.0408994 0.027998 
0.0310596 0.0404321 0.0275681 
-0.0380532 0.0369896 -0.0293583 
-0.0378393 0.0372467 -0.0293802 
-0.0119397 0.0347836 0.0434438 
-0.0384539 0.0705371 -0.016639 
-0.0379605 0.0706873 -0.0166948 
-0.0394089 0.0343624 0.0264532 
-0.0390581 0.0348337 0.0254989 
-0.038667 0.0350733 0.0250691 
0.0223222 0.0374291 0.0346359 
0.0251492 0.0398139 0.0333992 
0.0251494 0.0399777 0.0337417 
0.0248468 0.0397776 0.0341211 
0.0247677 0.0396328 0.0339865 
0.0459937 0.0776283 0.00478969 
0.0260497 0.0410705 0.0338079 
0.032761 0.0621021 -0.0171391 
0.032727 0.0619149 -0.0171343 
0.0196074 0.0988795 0.046608 
0.0200737 0.0984218 0.0466338 
0.0208646 0.0985773 0.0463571 
0.0236236 0.0549276 -0.024543 
-0.012181 0.183661 -0.026604 
-0.011604 0.183028 -0.027402 
-0.0634549 0.157658 -0.0427053 
-0.0131161 0.0993138 -0.0244366 
-0.0183083 0.164523 -0.0174532 
-0.0181749 0.164884 -0.0178029 
-0.0628965 0.159294 -0.0430685 
-0.0631764 0.158589 -0.0434653 
-0.0628918 0.159337 -0.0432487 
-0.0624705 0.16101 -0.0426475 
-0.06251 0.160829 -0.0426188 
-0.0626412 0.160383 -0.0431325 
-0.0623199 0.16265 -0.0432008 
-0.0623247 0.162285 -0.0426957 
-0.0623667 0.162116 -0.0433501 
-0.0623432 0.164516 -0.0432717 
-0.0623446 0.1646 -0.0432808 
-0.0623031 0.163145 -0.0426363 
-0.0626654 0.166086 -0.0428872 
-0.0624186 0.165066 -0.0428896 
0.0132314 0.121992 0.0339298 
-0.062947 0.166997 -0.0433222 
0.0507578 0.0451978 0.00731798 
0.0602701 0.0591743 0.00934319 
0.0587412 0.0686835 0.0069764 
0.0245561 0.0558365 -0.0235976 
0.0245468 0.0562144 -0.0238243 
0.00662885 0.0953092 -0.0292312 
0.00665348 0.0951783 -0.0293639 
-0.0343669 0.112097 -0.0177785 
-0.00422079 0.110721 -0.0213142 
0.00053386 0.124725 -0.00841313 
-0.0656466 0.170775 -0.0422026 
-0.0514907 0.055593 0.0178382 
-0.051431 0.055425 0.0181692 
-0.0514786 0.0554658 0.0182645 
-0.0517809 0.0560025 0.0177977 
0.0281578 0.0539611 -0.0194228 
0.0285468 0.0553404 -0.0188215 
-0.0887314 0.145602 0.0100371 
-0.0889704 0.145923 0.010167 
-0.0889178 0.144199 0.0115046 
-0.0888024 0.144124 0.0113693 
-0.086491 0.107744 0.0115831 
-0.0865159 0.109419 0.0113644 
-0.0611044 0.171513 -0.059243 
-0.0611257 0.171508 -0.0590633 
-0.0400487 0.154549 -0.00877485 
-0.0614294 0.173901 -0.058757 
0.0396857 0.0721074 -0.0103589 
0.0388942 0.0756466 -0.0105932 
0.0391983 0.0736341 -0.0107234 
0.0396994 0.0740604 -0.00991246 
0.0392956 0.0649207 -0.00925043 
0.0391181 0.0646586 -0.00940627 
0.0395162 0.06584 -0.0092714 
0.0399029 0.0667795 -0.00897871 
0.039581 0.0664855 -0.00947152 
0.0278622 0.0459546 -0.0082151 
0.0281292 0.0461883 -0.0081855 
0.0276717 0.0457746 -0.0082185 
0.0275415 0.045621 -0.00815152 
0.023196 0.116724 -0.0101323 
0.00737704 0.112649 -0.0194023 
-0.0909261 0.129198 0.00699435 
-0.0909655 0.126239 0.00630787 
-0.0139299 0.183247 -0.0237961 
-0.0915134 0.125718 0.0072221 
-0.0907787 0.127748 0.00636141 
0.0419666 0.0407099 0.00275212 
0.04205 0.0407383 0.00279797 
0.0409837 0.040014 0.00313272 
0.0411724 0.0401411 0.00307619 
-0.0877823 0.102485 0.00810843 
-0.0909825 0.122558 0.00650309 
-0.00697301 0.0340026 -0.0199008 
-0.00732489 0.033999 -0.0203423 
-0.0130463 0.0353257 -0.0180793 
-0.012935 0.0353799 -0.0180146 
0.0608919 0.0611557 0.0107474 
-0.0532205 0.0443645 0.0189544 
-0.053253 0.0443033 0.0187307 
-0.0557426 0.0628578 0.0302476 
0.0389741 0.099424 -0.00710748 
0.0388834 0.0989391 -0.00739674 
0.0415604 0.0709659 -0.0072252 
0.0415545 0.0704451 -0.00714699 
0.0414059 0.0724787 -0.00764607 
0.0413225 0.0729007 -0.00778171 
0.0415768 0.0730187 -0.00733125 
-0.0501273 0.136188 0.00173089 
0.0412684 0.0786196 -0.00740923 
0.0412934 0.0784559 -0.00735596 
0.0412947 0.0741536 -0.00766124 
0.0415501 0.074745 -0.00714961 
0.0409885 0.077846 -0.00771682 
0.041206 0.0783088 -0.0074641 
0.041038 0.0772054 -0.00762341 
0.0414185 0.0760478 -0.00722393 
0.0412757 0.0801553 -0.00768243 
0.0417271 0.0797121 -0.00695841 
0.0412523 0.0794073 -0.00756858 
0.0411533 0.0791444 -0.00765884 
0.0419764 0.081118 -0.00682876 
0.0417673 0.0815388 -0.00729696 
0.0413238 0.0805424 -0.00772457 
0.0420348 0.0823993 -0.0070618 
0.0418375 0.0828675 -0.00767907 
0.0421326 0.0833204 -0.00716885 
0.0420911 0.0838439 -0.0074222 
0.0424878 0.0859025 -0.0069748 
-0.0898986 0.138774 0.0235991 
0.0392282 0.0976794 -0.00716709 
0.0389885 0.0973158 -0.007583 
0.0406262 0.0779704 -0.00819402 
-0.0897152 0.138757 0.0240747 
0.038155 0.0620908 -0.0100189 
0.038105 0.0626289 -0.0102531 
0.0402178 0.0760486 -0.00874942 
0.0401825 0.0764122 -0.00875412 
-0.0628989 0.153545 -0.011182 
-0.0628983 0.153148 -0.0107669 
0.0378646 0.0628521 -0.0106756 
-0.0900814 0.139781 0.0231799 
-0.0226129 0.0383075 0.00207859 
-0.0226809 0.0383117 0.00193384 
0.0390422 0.0584305 0.0310682 
0.0395186 0.058268 0.0307324 
0.0418326 0.0764606 -0.006517 
-0.0898845 0.139419 0.0238067 
0.000470108 0.0340226 -0.0217253 
6.17891e-05 0.0341184 -0.0220317 
-0.0929544 0.130054 0.0162464 
-0.0365477 0.10675 -0.0202368 
-0.0857129 0.110992 0.00519167 
-0.0284974 0.0375209 0.0227994 
-0.0289827 0.0373335 0.023534 
-0.029102 0.0371929 0.0235223 
-0.0292841 0.0369911 0.0235305 
0.0517864 0.055192 -0.00336485 
0.052021 0.0546779 -0.00303171 
-0.0871268 0.112692 0.00529673 
-0.0869965 0.112572 0.00522286 
-0.0927834 0.123848 0.0400096 
0.0252618 0.0565824 -0.0227781 
0.0252648 0.0567204 -0.0228578 
-0.049417 0.141667 0.00887406 
-0.0493963 0.141453 0.00874688 
0.0066249 0.0911917 -0.0324353 
0.0417588 0.0415748 0.00114506 
0.0425918 0.0420573 0.00133912 
0.0426204 0.0423542 0.000997598 
0.0418395 0.0416214 0.00116386 
-0.0865747 0.108979 0.0161712 
-0.0865714 0.108931 0.0160124 
-0.0388512 0.15155 -0.0060217 
-0.0376871 0.0354892 0.0434736 
-0.013702 0.0392462 0.036984 
-0.0135632 0.0392541 0.0370338 
-0.0373989 0.0352935 0.043356 
0.0195868 0.104364 -0.018849 
0.018901 0.104258 -0.0192907 
0.024968 0.12092 -0.00235999 
0.0252665 0.120542 -0.00269818 
0.0319397 0.0601261 -0.0172187 
0.0316231 0.0601134 -0.0175543 
0.0253047 0.120441 -0.00284185 
-0.0519183 0.0559697 0.0186863 
0.026457 0.04154 0.0337382 
0.0260949 0.0409478 0.0334999 
0.0381265 0.0730686 -0.0119933 
0.0381625 0.0738959 -0.0118201 
0.0190582 0.0379829 -0.0149381 
0.0193147 0.0383361 -0.0148266 
-0.0849476 0.108969 0.00500638 
0.0369074 0.0746496 -0.0126284 
0.0371399 0.0755662 -0.0122896 
0.0249043 0.0570594 -0.0236199 
0.0249936 0.0563525 -0.0230577 
0.0377043 0.0855506 -0.0153716 
-0.0918665 0.131883 0.0118147 
-0.0919698 0.131483 0.0114417 
0.0261488 0.0587776 -0.0228787 
0.0259109 0.0583991 -0.0229408 
-0.088572 0.101104 0.00936882 
-0.0929125 0.125204 0.0285453 
-0.0919632 0.120817 0.00820994 
-0.0919472 0.121198 0.00809791 
-0.0910564 0.116437 0.00740051 
-0.0910562 0.116395 0.0074322 
-0.0917904 0.117071 0.00830695 
-0.091654 0.119651 0.00770979 
-0.0915431 0.119654 0.00748161 
-0.0261113 0.11686 -0.0140742 
-0.0611487 0.146257 -0.00393292 
0.0347061 0.0715229 -0.0157395 
0.0350562 0.0699544 -0.0156438 
0.0385922 0.071646 -0.0118185 
0.0383258 0.0722785 -0.0119721 
-0.0502817 0.0488512 0.0173072 
0.0346049 0.0647059 -0.0152456 
0.034465 0.0645928 -0.0154347 
0.0354102 0.0669015 -0.0150903 
0.0348698 0.0667696 -0.0155946 
-0.0620681 0.152243 -0.0179009 
-0.0618156 0.155214 -0.0183086 
-0.0618717 0.154571 -0.0182965 
-0.0619132 0.156064 -0.018455 
-0.0619894 0.155717 -0.0179331 
-0.0618935 0.154033 -0.017956 
-0.0906501 0.141863 0.0241494 
-0.0664941 0.159999 -0.0566343 
-0.0547489 0.0370219 0.0468733 
-0.0115069 0.0347832 0.0432488 
-0.0112326 0.0347839 0.0438535 
-0.0380481 0.0701663 -0.016427 
-0.0382608 0.0700624 -0.0163769 
-0.0386401 0.071713 -0.0171582 
-0.0383404 0.0716898 -0.0171743 
-0.0379177 0.0710855 -0.0168998 
-0.0377522 0.0714554 -0.0170507 
0.0289935 0.0622882 -0.0203125 
0.0240858 0.0385554 0.0329834 
0.0210944 0.0439055 -0.0192346 
0.0213374 0.0443344 -0.0188523 
0.0590397 0.0605621 0.0217797 
-0.00333374 0.120129 -0.0130415 
-0.00245592 0.120894 -0.0122581 
0.0158729 0.0389774 -0.0210921 
0.0162982 0.0393885 -0.0210592 
0.0164733 0.0396093 -0.0210799 
-0.0132948 0.0337947 -0.0219978 
-0.0133525 0.0338522 -0.0212347 
-0.033128 0.15454 -0.0083264 
-0.0655302 0.15123 -0.0365017 
-0.068043 0.063165 0.000670498 
-0.0679789 0.063178 0.000411069 
-0.0630467 0.159062 -0.04366 
-0.0630888 0.158904 -0.0436076 
-0.0630812 0.159514 -0.0445575 
-0.0631452 0.159174 -0.0443207 
-0.062449 0.161479 -0.0436465 
-0.0628074 0.160093 -0.0441057 
-0.0627891 0.160296 -0.0442656 
-0.0492734 0.140245 0.0125164 
-0.0494084 0.140702 0.0125176 
-0.0131765 0.0379338 -0.0164854 
-0.0129224 0.0381208 -0.0161765 
0.0462459 0.0769598 0.0172012 
0.0462325 0.0768597 0.0174438 
0.0462139 0.0780233 0.0171931 
-0.0233753 0.0383142 0.00338467 
0.028683 0.0573481 -0.0188504 
0.028559 0.0570305 -0.0188952 
0.0277875 0.0556355 -0.0195865 
0.0279928 0.0556303 -0.0193827 
0.0308664 0.0695955 -0.0193114 
0.0306186 0.0696127 -0.0195531 
0.0318095 0.0717908 -0.0189645 
0.0312991 0.0721739 -0.0195888 
-0.0901455 0.114261 0.0077058 
-0.0899344 0.113799 0.00824837 
-0.0873525 0.110436 0.0116597 
-0.0874291 0.143329 0.00980335 
-0.0871636 0.1435 0.00928399 
-0.086487 0.11026 0.00842893 
-0.09016 0.140725 0.0237431 
-0.0613323 0.173623 -0.0593303 
-0.0625934 0.160145 -0.0213822 
-0.0883024 0.10251 0.0189124 
-0.0880413 0.103317 0.0185393 
0.0393306 0.0680316 -0.0107293 
0.0392714 0.0675218 -0.010669 
0.0399568 0.0711374 -0.0100341 
0.0397189 0.0711391 -0.0103625 
0.0398956 0.0699629 -0.0101058 
0.0397339 0.0700668 -0.0104274 
0.0395869 0.0698396 -0.0106665 
0.04026 0.0680378 -0.00882911 
0.040194 0.0721674 -0.0096486 
0.040089 0.0730558 -0.00963589 
0.0398947 0.0675264 -0.00938129 
0.0398394 0.0677748 -0.00959455 
0.0403187 0.0699355 -0.00931135 
0.0403794 0.0695911 -0.00910983 
0.0315264 0.0499557 -0.00804547 
0.0299004 0.0483838 -0.00863891 
0.0306137 0.0489529 -0.00814723 
-0.0229455 0.0383915 -0.00436305 
-0.0324713 0.0339904 0.0202233 
-0.0321068 0.0340815 0.0205529 
0.0419328 0.0909355 -0.00761848 
0.0422329 0.0905095 -0.00705399 
0.0417996 0.0738843 -0.00686998 
0.0414787 0.0753986 -0.00718185 
0.0368522 0.103824 -0.0076236 
0.036542 0.104932 -0.00689451 
0.0369897 0.104001 -0.0070561 
-0.0858851 0.105817 0.00502991 
-0.0905767 0.132245 0.00721667 
0.0380107 0.100935 -0.0080379 
0.0381917 0.100362 -0.00805104 
0.0375215 0.102949 -0.00715161 
0.0374484 0.103188 -0.00702328 
0.038943 0.100224 -0.00685606 
-0.0567331 0.0558292 0.0057394 
-0.0566598 0.0559336 0.00616603 
0.0389047 0.0595196 -0.00592227 
0.0394467 0.0612863 -0.00619963 
-0.0151233 0.0375277 -0.0267302 
0.0257025 0.0511023 -0.0211521 
0.0227767 0.0401832 -0.00686363 
0.0222726 0.0397579 -0.00704707 
0.0219955 0.0392626 -0.00675795 
0.0591264 0.0593639 0.0212711 
0.0412878 0.0693275 -0.00737039 
0.0213204 0.0387213 -0.00719065 
0.0216201 0.0393677 -0.00768598 
0.0409831 0.0682935 -0.00758938 
0.041606 0.0713978 -0.00721765 
0.0407562 0.0670395 -0.0074679 
0.0413474 0.0699786 -0.00743255 
0.0402724 0.0650538 -0.00736869 
0.0411553 0.0677538 -0.00687865 
0.0398978 0.0637109 -0.00720412 
0.0408079 0.0664124 -0.00691572 
0.0306102 0.0486298 -0.00773547 
0.0306028 0.0488292 -0.00800081 
0.0407108 0.0658916 -0.00681538 
0.0405011 0.0655361 -0.0071154 
0.0387984 0.098763 -0.00758556 
-0.00584065 0.0986601 -0.027226 
-0.0915401 0.147423 0.0172659 
-0.0915602 0.14692 0.0180051 
-0.0530831 0.139199 -0.000514578 
-0.0529473 0.138818 -0.000473718 
0.0406732 0.0768092 -0.00812186 
-0.0914908 0.146694 0.0176917 
0.0388096 0.0643822 -0.00978435 
0.0384603 0.064488 -0.0103428 
0.0411191 0.0736771 -0.00801017 
-0.0624852 0.147479 -0.010095 
0.0382362 0.0635097 -0.0103414 
-0.0250918 0.160059 -0.0132107 
-0.0626568 0.146738 -0.0102108 
-0.0910624 0.143152 0.0234645 
0.0379418 0.066684 -0.0123198 
-0.0907449 0.142144 0.0236537 
-0.0238031 0.0382886 0.00406292 
-0.0240966 0.0382521 0.00486521 
-0.0153195 0.0388251 -0.00919153 
-0.0623798 0.0465718 0.00716003 
-0.0625944 0.046433 0.00739492 
-0.0622751 0.0464238 0.00770795 
-0.0509673 0.0472948 0.0170561 
-0.0540694 0.0457693 0.0152751 
-0.0543188 0.0453617 0.0156428 
0.0281613 0.0577472 -0.019692 
0.0280918 0.0570053 -0.0194494 
-0.00967196 0.173736 -0.0235804 
0.0448452 0.0897064 3.66299e-05 
0.0449454 0.089047 0.000158027 
-0.0623405 0.16281 -0.0436471 
-0.062501 0.161792 -0.0444454 
-0.0623252 0.164094 -0.0441513 
-0.0623812 0.163685 -0.0445364 
-0.0624615 0.165566 -0.04385 
-0.0625158 0.165933 -0.043929 
-0.0624164 0.165511 -0.0444696 
-0.0624438 0.165781 -0.044448 
-0.062995 0.167524 -0.0442724 
-0.062673 0.166536 -0.0439156 
-0.062602 0.166394 -0.0440692 
0.060592 0.0599671 0.0100664 
0.0213193 0.122664 -0.00331371 
-0.00906789 0.171451 -0.02327 
0.0166451 0.0372885 -0.0189985 
0.0169747 0.037709 -0.0189749 
0.0160569 0.0369673 -0.0194877 
0.0185372 0.0372139 -0.0151135 
0.0184022 0.0372055 -0.0156063 
0.0370994 0.0746347 -0.0124795 
0.0376629 0.0754007 -0.0119085 
-0.0524111 0.0460472 0.016522 
-0.0528898 0.0457813 0.0164027 
-0.0851672 0.110494 0.00499605 
-0.0850365 0.110607 0.00450398 
0.0376327 0.0765511 -0.0119235 
0.0376249 0.0763448 -0.0119337 
-0.0892935 0.146276 0.0105696 
-0.0893656 0.14659 0.0106605 
0.0380766 0.0855595 -0.014926 
0.0246645 0.0567314 -0.0238607 
-0.0896235 0.14808 0.0111466 
-0.0138066 0.0992105 -0.0243066 
-0.013484 0.0993279 -0.0243017 
0.0031467 0.112523 -0.0201071 
-0.0892183 0.145803 0.0106612 
0.0354751 0.104601 -0.0093613 
0.00827772 0.0360652 -0.00712185 
0.0085282 0.0361164 -0.0077319 
0.00856214 0.0362196 -0.00797386 
-0.0621256 0.151883 -0.0176681 
-0.0622448 0.151606 -0.0181386 
0.0353258 0.0674367 -0.0152892 
0.0352362 0.0672657 -0.0153541 
0.0352812 0.0724291 -0.0148178 
0.0400497 0.0867231 -0.0118694 
0.039926 0.0870415 -0.0119904 
0.0350677 0.0659859 -0.015122 
0.0347805 0.0661489 -0.0155324 
0.0353086 0.068437 -0.0154547 
0.0357279 0.0682537 -0.0150099 
0.0028066 0.0343893 -0.0221184 
-0.00343712 0.0343744 -0.0232621 
-0.00318671 0.0343084 -0.0230024 
0.0199354 0.0414001 -0.018993 
0.0194995 0.0407896 -0.0188751 
0.019669 0.0415083 -0.019633 
0.0205641 0.0428116 -0.0196557 
-0.0640388 0.156593 -0.0431493 
0.0529284 0.0611975 -0.00281739 
-0.0486469 0.137184 0.00868551 
-0.0487112 0.137983 0.00926485 
-0.0378842 0.0731161 -0.0176395 
-0.0360432 0.0935107 -0.0236394 
-0.0363911 0.0933352 -0.0236321 
-0.0385274 0.0730197 -0.0175533 
0.0295196 0.0633053 -0.0197768 
0.0298136 0.0629263 -0.0196102 
0.0301776 0.0629588 -0.0193893 
0.0417454 0.103249 0.00400122 
-0.0609446 0.169175 -0.0599615 
0.0210373 0.0441219 -0.0194972 
-0.0489965 0.138939 0.00856182 
-0.0643801 0.155691 -0.0424836 
-0.0640586 0.156043 -0.0420451 
0.0440228 0.0979953 0.00695078 
0.0439194 0.0983454 0.00712669 
0.0432785 0.100002 0.00702314 
-0.0878372 0.104922 0.0123197 
-0.0381812 0.0750898 -0.0180906 
-0.0360862 0.0345818 0.0397941 
-0.0360418 0.0346058 0.0401164 
-0.0568444 0.0607355 -0.00369834 
-0.0574841 0.0612844 -0.00384454 
0.00682485 0.0380062 -0.0108344 
0.00622602 0.0383584 -0.0102362 
-0.0371907 0.0348976 0.0423697 
-0.0373999 0.0349395 0.0423638 
-0.0130226 0.0350343 0.0487251 
-0.0138306 0.0357058 0.0504315 
-0.0671004 0.15216 -0.0455239 
-0.0414553 0.0365585 0.0433739 
-0.0632392 0.159162 -0.0448989 
-0.0630427 0.159726 -0.0447211 
-0.0633589 0.158933 -0.04516 
-0.0636224 0.158321 -0.0454215 
-0.0626831 0.16101 -0.0446769 
-0.062999 0.159928 -0.0448324 
-0.0624588 0.162752 -0.0451009 
-0.0624828 0.162396 -0.0450105 
-0.0626126 0.161555 -0.0452629 
-0.0625397 0.16196 -0.0451093 
-0.0624142 0.163576 -0.0455654 
-0.0624144 0.16346 -0.0451443 
-0.0615906 0.155948 -0.0227752 
-0.0615921 0.156108 -0.0227893 
-0.0621258 0.159933 -0.0232162 
-0.0616206 0.157212 -0.0226947 
-0.0615863 0.157063 -0.0228765 
0.031673 0.073712 -0.019602 
0.0319091 0.0732761 -0.0192232 
0.0307602 0.0709764 -0.0197793 
0.0318275 0.0710509 -0.0187679 
0.0314628 0.0725317 -0.0195092 
0.0318304 0.0726359 -0.019153 
0.0320445 0.0746415 -0.0192885 
0.0330543 0.0766114 -0.0181272 
0.0331811 0.0767189 -0.0179646 
0.0329496 0.0775649 -0.0184733 
0.0326136 0.0753423 -0.0184504 
0.0328468 0.0754256 -0.0180407 
0.0331343 0.0778166 -0.0182793 
0.0334082 0.0773762 -0.0178047 
-0.091384 0.144516 0.0239468 
-0.0621674 0.158456 -0.0201719 
-0.0615641 0.175363 -0.059619 
0.0183769 0.0360187 -0.0133355 
0.0185986 0.0364448 -0.013077 
0.0377535 0.06527 -0.0118753 
0.0396024 0.0679879 -0.0101539 
0.037058 0.0649045 -0.0124829 
0.0373412 0.0646831 -0.0120628 
0.0390608 0.0667444 -0.0106435 
0.039215 0.0660564 -0.00994766 
0.0406964 0.0713604 -0.00886703 
0.0400582 0.0689415 -0.00959146 
0.0402544 0.0692677 -0.00926462 
0.0298631 0.0478052 -0.00776138 
0.0299459 0.0481353 -0.0081587 
0.0288684 0.0470271 -0.00837354 
0.0291282 0.0473864 -0.00847771 
-0.086321 0.104267 0.00537001 
-0.0863815 0.103885 0.00530314 
-0.0622374 0.145769 -0.00621163 
0.0415537 0.0929429 -0.00669661 
-0.0347401 0.0474319 -0.0218874 
-0.0337601 0.0479638 -0.0212171 
-0.0333177 0.0480771 -0.0213687 
-0.0335928 0.0479595 -0.0214434 
-0.0313999 0.153561 -0.00372167 
-0.0320735 0.153262 -0.00408135 
-0.0175353 0.0336677 -0.0235265 
-0.0168489 0.0336592 -0.02458 
-0.0883482 0.103394 0.012209 
0.0243199 0.0425507 -0.00759951 
0.0244492 0.0424681 -0.00734463 
0.023538 0.0410845 -0.0068004 
0.0234919 0.0410919 -0.00685915 
-0.00840056 0.117031 -0.0155824 
0.0224632 0.0403082 -0.0075468 
0.0228787 0.0408486 -0.00745696 
0.0256858 0.043299 -0.00699856 
0.0250688 0.0429014 -0.00723414 
0.0391739 0.0604754 -0.00621631 
0.0360509 0.0552756 -0.00762771 
0.0361725 0.0554124 -0.00757766 
0.0398499 0.0629649 -0.00664514 
0.03983 0.0629002 -0.00663809 
0.0407598 0.0658774 -0.00664189 
0.0366345 0.105637 -0.0055661 
-0.0929185 0.115851 0.015449 
-0.0353717 0.0492429 -0.0135129 
-0.0505108 0.0481743 0.0169501 
-0.050849 0.0475713 0.0169285 
-0.0697758 0.148902 -0.0374059 
-0.0616546 0.17348 -0.0572411 
-0.0619415 0.17484 -0.0570346 
-0.0619543 0.174594 -0.0567223 
-0.0889241 0.146437 0.010035 
-0.0887254 0.147108 0.00978089 
-0.0618493 0.174815 -0.0574716 
-0.0685425 0.149528 -0.0383153 
-0.0689747 0.149096 -0.0372635 
-0.0889967 0.100548 0.0120087 
-0.0912286 0.143831 0.023283 
-0.0914313 0.144912 0.0232418 
-0.0914512 0.14514 0.0232455 
-0.0910289 0.145837 0.015816 
-0.0908153 0.145682 0.0151777 
-0.0912908 0.148787 0.0158304 
-0.0912436 0.148678 0.0154561 
-0.0914463 0.145494 0.0240406 
-0.0165486 0.100881 -0.0238132 
-0.00276404 0.0344557 -0.0230844 
-0.00327778 0.0339064 -0.0223297 
0.0389104 0.0982571 -0.00753687 
0.0392311 0.0982671 -0.00702132 
-0.0050644 0.0977219 -0.0289615 
-0.0912765 0.147364 0.0237486 
-0.0913816 0.146752 0.0238749 
-0.0429252 0.164391 -0.010206 
0.040495 0.0748015 -0.00868457 
0.0406743 0.0753569 -0.00835519 
-0.0914557 0.146499 0.0235827 
-0.0332912 0.0900036 -0.0244971 
0.0409844 0.0755275 -0.00793 
0.0408099 0.0747331 -0.00827205 
-0.0624022 0.148248 -0.00988763 
-0.0624012 0.148274 -0.00994103 
-0.061417 0.171561 -0.0576745 
-0.0624176 0.14874 -0.0105408 
-0.0624631 0.150017 -0.00990113 
-0.0624269 0.149596 -0.00982426 
-0.0624077 0.149153 -0.00964416 
-0.0625362 0.150961 -0.0102808 
-0.0625966 0.151457 -0.0104912 
-0.0527794 0.139358 0.0259132 
-0.0627412 0.152127 -0.0103603 
-0.0518893 0.0462327 0.01698 
-0.0513794 0.0465872 0.017302 
-0.0242255 0.0381666 0.0061306 
0.029122 0.0591947 -0.0192433 
0.029035 0.0584154 -0.0188801 
-0.0875387 0.111241 0.00880986 
-0.087767 0.111381 0.00896037 
-0.01088 0.175516 -0.0231766 
-0.0108736 0.175411 -0.0231088 
0.0286392 0.0580622 -0.0192023 
0.0287356 0.0590838 -0.0196985 
-0.0624053 0.165508 -0.0453991 
-0.0624216 0.165802 -0.0454883 
-0.0614967 0.156736 -0.0235867 
-0.0615711 0.156417 -0.0230911 
-0.062354 0.164865 -0.0450075 
-0.0628688 0.167389 -0.0447052 
-0.0627948 0.167612 -0.0452941 
-0.0625452 0.166544 -0.0447726 
-0.0633836 0.168657 -0.0451381 
-0.0489716 0.138794 0.00852727 
-0.0491097 0.139747 0.00916098 
-0.00984733 0.174043 -0.0235291 
-0.0103112 0.174062 -0.0228389 
-0.0617585 0.154284 -0.0228844 
0.0182205 0.0394606 -0.0191491 
0.0182859 0.0397902 -0.01942 
0.0177367 0.0389746 -0.0192839 
0.017434 0.0388339 -0.0195017 
0.0178457 0.0393343 -0.0195239 
-0.0675723 0.179681 -0.0593289 
-0.0673259 0.17857 -0.0595065 
-0.085119 0.145187 0.00642047 
-0.0506008 0.0506444 0.015026 
-0.0503438 0.0513422 0.0152366 
-0.0774151 0.168322 -0.0303254 
0.037161 0.0765518 -0.0124718 
0.036836 0.0762872 -0.0126751 
0.0409929 0.0857393 -0.0103422 
0.0375744 0.0850242 -0.0155333 
0.0381551 0.0842321 -0.0148652 
0.0376798 0.0782223 -0.0124607 
0.038098 0.0783816 -0.0120576 
0.0379503 0.0831964 -0.0150155 
0.0381217 0.0832227 -0.0148211 
0.0376267 0.0865235 -0.0152984 
0.0376513 0.086716 -0.0152357 
0.0345741 0.0747921 -0.0155771 
0.0377744 0.0828302 -0.0151744 
0.0350776 0.0740364 -0.0148337 
0.0348385 0.0768511 -0.0156207 
0.0347758 0.0728822 -0.0153551 
0.0348894 0.0751695 -0.0152215 
0.0401865 0.0854437 -0.0118757 
0.0350243 0.0686842 -0.0157275 
0.0351277 0.0696486 -0.0155903 
0.0399857 0.087357 -0.0118035 
0.0391504 0.0883826 -0.0127109 
0.0397122 0.0883175 -0.0119279 
-0.0908832 0.113491 0.0114195 
-0.0624986 0.148407 -0.0123784 
-0.0624352 0.148714 -0.0123769 
-0.0907228 0.148394 0.0240181 
-0.0876377 0.0876501 0.0223159 
0.0192375 0.0408842 -0.0194703 
0.0192247 0.0409845 -0.0196209 
0.0208883 0.0427327 -0.0188368 
-0.00888043 0.170755 -0.023376 
-0.00894581 0.170859 -0.0232376 
-0.00882091 0.170057 -0.0232462 
-0.0386864 0.0739869 -0.0177651 
-0.0386434 0.0751969 -0.0180289 
-0.00918766 0.171911 -0.0232136 
-0.00937889 0.172306 -0.0230108 
0.0527502 0.0470347 0.00735308 
0.0526523 0.046892 0.00776032 
-0.0361093 0.103093 -0.0212003 
-0.0871189 0.140651 0.00861959 
-0.0466487 0.146711 0.00714738 
-0.0466258 0.146376 0.00675344 
-0.049706 0.142834 0.0112714 
0.0420605 0.10165 0.0158768 
0.0421597 0.101628 0.0153279 
0.0433771 0.0997506 0.00698194 
-0.0616364 0.155012 -0.0230715 
-0.0488337 0.138451 0.00910347 
-0.0488822 0.138349 0.00855324 
0.0396054 0.106795 0.00351974 
-0.062243 0.152459 -0.0233783 
-0.0622009 0.152516 -0.0231085 
-0.0542147 0.141502 0.0281257 
-0.0908154 0.148599 0.0232812 
0.036524 0.0533311 0.0316973 
0.0361184 0.0534888 0.0319416 
-0.090067 0.149323 0.0239913 
-0.0899949 0.14956 0.0236819 
-0.0504834 0.0480052 0.0173873 
-0.0503342 0.0486503 0.0168161 
-0.00914009 0.175973 -0.0268828 
0.00673658 0.0381688 -0.0101138 
0.0195697 0.0423993 -0.0207074 
0.0191869 0.042411 -0.021148 
0.0292806 0.0536594 -0.0177511 
0.0278757 0.0496667 -0.0176032 
0.0271117 0.0486715 -0.0175108 
0.0271262 0.0486434 -0.0174667 
0.0286731 0.0502423 -0.0167551 
0.0286464 0.0507891 -0.0174109 
0.00346909 0.0343943 -0.0218377 
0.0585545 0.0533814 0.0120747 
0.0585445 0.053336 0.0121682 
-0.014236 0.0388245 -0.0143764 
-0.0138006 0.0388762 -0.014042 
-0.0140383 0.0383093 0.0224418 
-0.0369815 0.0348943 0.0424931 
-0.0370006 0.0348303 0.0421364 
-0.0133673 0.0387821 -0.0147169 
-0.0132216 0.0387702 -0.0147264 
-0.00200366 0.0351066 0.0462814 
-0.005145 0.0389408 0.0313021 
-0.00511046 0.0388674 0.0301 
-0.0643532 0.156629 -0.0445636 
0.0358803 0.037274 0.0165388 
0.0360112 0.0374008 0.0170017 
-0.0371908 0.0345168 0.0386971 
-0.00891492 0.172665 -0.027203 
-0.0759505 0.0685727 0.00389739 
-0.0707175 0.149892 -0.0415628 
-0.0707988 0.150186 -0.0422633 
0.0321238 0.0762971 -0.0194032 
0.0323772 0.0755526 -0.0189057 
0.0318681 0.0748755 -0.0195562 
0.0321063 0.0738935 -0.0190874 
-0.0861319 0.141403 0.00671215 
-0.0862758 0.141375 0.00719128 
0.0329282 0.07173 -0.0177911 
0.0325194 0.0723145 -0.0183018 
0.0325094 0.0731434 -0.0184405 
0.0323599 0.0726924 -0.018546 
0.0322677 0.0712511 -0.0184111 
0.0322859 0.0720363 -0.0185588 
0.032875 0.072696 -0.0178833 
0.0328666 0.0733323 -0.0178532 
0.0195412 0.0382181 -0.0134609 
0.0194221 0.0378799 -0.0127758 
-0.000876987 0.0376021 0.0195429 
-0.00127586 0.0379325 0.019668 
0.01903 0.0374517 -0.0136829 
0.020502 0.0397646 -0.0127704 
-0.0131771 0.170323 -0.0244083 
-0.0123491 0.169801 -0.0245019 
0.0365531 0.063145 -0.0123502 
0.0365678 0.0629738 -0.0122838 
0.0215865 0.0387333 -0.00659537 
0.0215439 0.0384421 -0.00597139 
0.0404525 0.0708747 -0.0092282 
-0.00600494 0.128002 -0.00369369 
-0.00676061 0.127977 -0.00342482 
-0.063653 0.147375 -0.01825 
-0.0630955 0.148497 -0.018244 
-0.0566254 0.0535926 0.00521398 
0.0361751 0.10598 -0.00631367 
0.0361415 0.10614 -0.00615981 
0.0424749 0.083859 -0.00654841 
0.0373398 0.104539 -0.00521957 
0.0409811 0.0667204 -0.00664337 
0.0415778 0.0692688 -0.00675585 
0.0416777 0.0690583 -0.00633313 
0.0418802 0.0923874 -0.00635995 
0.0422253 0.0917685 -0.00596629 
0.0418847 0.092841 -0.00581994 
-0.0566538 0.0420581 0.0192465 
-0.0576697 0.0412778 0.0196427 
-0.0876874 0.0955107 0.00546509 
-0.0904274 0.149131 0.023424 
-0.0624592 0.149353 -0.00411109 
0.019325 0.0360628 -0.00745047 
0.0200403 0.0373417 -0.00730503 
0.01986 0.0363479 -0.00603728 
0.0210873 0.038417 -0.00705438 
0.0211109 0.0385031 -0.00719224 
-0.0640069 0.152612 -0.0351113 
-0.063694 0.152698 -0.0342211 
-0.089062 0.150562 0.0235161 
-0.0892137 0.150477 0.0234046 
-0.0927909 0.121922 0.0330258 
-0.0203649 0.0385469 -0.00848806 
-0.0201812 0.0385999 -0.00923378 
0.0418496 0.0709291 -0.00661422 
0.0419009 0.0709587 -0.00649309 
-0.0203862 0.159276 -0.0111366 
-0.0201973 0.159683 -0.0118781 
-0.052561 0.0451632 0.0193298 
-0.0614956 0.171692 -0.0571512 
-0.0626308 0.149641 -0.0069372 
-0.0627562 0.150443 -0.00752689 
-0.0615583 0.171502 -0.0565963 
-0.0623278 0.146712 -0.0063374 
-0.0622948 0.147316 -0.00599515 
-0.0689277 0.149852 -0.0406323 
-0.0687911 0.150055 -0.0411624 
-0.0635584 0.157879 -0.043962 
-0.0635685 0.157843 -0.0439196 
-0.0622397 0.146739 -0.00591116 
-0.0377997 0.0763983 -0.0186842 
-0.0382903 0.076331 -0.0185343 
-0.0186384 0.03874 -0.0104985 
-0.0187004 0.0387358 -0.0103742 
0.0196158 0.0365216 -0.00687948 
0.0196458 0.0366919 -0.00716274 
-0.0919242 0.127436 0.0332133 
0.00481637 0.116308 -0.017955 
0.00835199 0.0342588 -0.0203178 
0.0393763 0.0963655 -0.00740701 
0.039569 0.0969958 -0.00689517 
-0.00783104 0.118656 -0.0145869 
-0.0922176 0.125957 0.0345637 
0.0418454 0.0915508 -0.00738862 
0.0417236 0.092037 -0.00720249 
0.0406471 0.0698198 -0.00871077 
-0.0633008 0.0402527 0.0254039 
-0.0613652 0.171815 -0.0581507 
0.0408322 0.0717088 -0.00866785 
0.0385944 0.0654513 -0.0106922 
0.038301 0.0647377 -0.0107211 
-0.0615425 0.173052 -0.0576768 
-0.0615249 0.173998 -0.0582382 
0.0388921 0.06556 -0.0102675 
0.0392651 0.066807 -0.0102942 
0.040911 0.0847079 -0.0104223 
0.0408874 0.085274 -0.0104965 
0.0410211 0.0868472 -0.010183 
-0.0623419 0.148922 -0.011787 
-0.0623761 0.148666 -0.0116999 
-0.0628604 0.0393566 0.0250089 
-0.086199 0.106074 0.00654488 
-0.088942 0.0905257 0.00858049 
0.0304246 0.0609361 -0.0188534 
0.0302517 0.0606268 -0.0188389 
0.0320135 0.075544 -0.0194319 
0.00948852 0.0343416 -0.0200701 
-0.0586947 0.0607656 -0.00250095 
-0.0587725 0.0608176 -0.00252828 
-0.0591789 0.0607486 -0.00203379 
-0.0632817 0.15945 -0.0457154 
-0.0637632 0.158413 -0.0465186 
-0.0632982 0.159486 -0.046346 
-0.0628114 0.161053 -0.046061 
-0.0630996 0.160017 -0.0458507 
-0.0625525 0.162472 -0.0462952 
-0.0626374 0.161938 -0.0463173 
-0.0625653 0.041452 0.02543 
-0.0623585 0.0409798 0.0248965 
-0.0624286 0.163798 -0.0459352 
-0.0624395 0.16345 -0.0457915 
0.0292756 0.0607875 -0.0197654 
-0.0628239 0.0413089 0.0255924 
-0.0628232 0.0414397 0.0256842 
-0.0876712 0.112374 0.00686008 
-0.0874012 0.111972 0.00694162 
0.0306134 0.0769287 -0.0209039 
-0.0915286 0.114163 0.0120906 
-0.0915604 0.114319 0.01173 
-0.0863863 0.105987 0.00729989 
-0.0864458 0.105678 0.00720192 
0.0405036 0.0817425 -0.01023 
0.0346941 0.0802855 -0.0173387 
0.0343966 0.0802774 -0.0176696 
0.0391244 0.0807821 -0.0122533 
0.0392206 0.0811732 -0.0123377 
0.0409403 0.0835809 -0.010071 
0.0375768 0.0776498 -0.0122759 
0.0376738 0.0774882 -0.0120672 
0.038922 0.0808713 -0.0126352 
0.0389945 0.0798052 -0.0118004 
0.0378734 0.0788725 -0.012648 
0.03837 0.079572 -0.0125636 
0.0396128 0.0824408 -0.012232 
0.0397643 0.0826293 -0.0120607 
0.0393003 0.0817276 -0.0124916 
0.0399961 0.0843123 -0.0121541 
0.0395707 0.0829232 -0.0124906 
0.0395251 0.0836639 -0.0127513 
-0.0490625 0.138087 0.0158914 
-0.0490078 0.13779 0.0163414 
0.040037 0.0844718 -0.0120981 
0.0401492 0.084498 -0.0119196 
0.0370906 0.0978363 -0.0102708 
0.0371652 0.097605 -0.0101918 
0.037138 0.0972524 -0.0102366 
0.0368981 0.0976948 -0.0105044 
-0.0623173 0.149835 -0.0118396 
0.0382415 0.0961193 -0.00908463 
-0.088551 0.090047 0.0222195 
-0.0622982 0.150169 -0.0123331 
0.0310833 0.0630291 -0.0188924 
0.0304418 0.0638065 -0.0193276 
0.031402 0.0631925 -0.0187503 
-0.0864761 0.104589 0.00610344 
0.0306628 0.0622735 -0.0190652 
0.029842 0.0619091 -0.0194863 
0.0304003 0.0622841 -0.0192355 
0.0294648 0.0612045 -0.0196895 
0.0303062 0.0612118 -0.019004 
-0.0910342 0.147638 0.0146083 
-0.0506609 0.0501049 0.0195725 
-0.0506284 0.0496559 0.0193391 
-0.0641717 0.160247 -0.0568571 
-0.0638514 0.160284 -0.0567425 
-0.0216891 0.0383256 -0.00228581 
0.041133 0.104537 0.00412597 
0.0411891 0.104336 0.00379978 
-0.062451 0.163285 -0.0464893 
-0.062386 0.165703 -0.0458506 
-0.0623597 0.166017 -0.0463619 
-0.0623681 0.165392 -0.0462896 
-0.0627861 0.167803 -0.0456126 
-0.0626365 0.167661 -0.0464036 
-0.062379 0.166294 -0.0463993 
-0.0626095 0.167617 -0.0465639 
0.0389626 0.107672 0.00320464 
-0.0905433 0.134647 0.0117796 
-0.0906287 0.140022 0.0153766 
0.0215893 0.0453595 -0.0188939 
0.0211669 0.0455577 -0.0196484 
0.0210721 0.0448663 -0.0197023 
0.00727606 0.0956756 -0.0281986 
0.00691239 0.0957926 -0.0282513 
-0.0555749 0.126331 -0.00630916 
0.027114 0.0497521 -0.0187957 
0.0278899 0.05084 -0.0188099 
0.00694292 0.0955872 -0.0285702 
0.0281408 0.0522703 -0.0193352 
0.0283197 0.0521103 -0.0189609 
0.0270054 0.0491411 -0.0182366 
0.0284261 0.0535143 -0.0190976 
0.0281877 0.0531255 -0.0193152 
0.0277506 0.0511716 -0.0192065 
0.0277368 0.0510763 -0.0191641 
0.0279127 0.054371 -0.0196066 
0.0282835 0.052775 -0.0191566 
0.02815 0.0525406 -0.0193488 
0.0435025 0.0983768 0.00416487 
-0.0898438 0.112442 0.0119557 
-0.0897825 0.112438 0.0117116 
-0.061827 0.1589 -0.0232209 
-0.0617442 0.158717 -0.0234704 
-0.0627004 0.161182 -0.0231818 
-0.0627693 0.161319 -0.0232211 
-0.0618871 0.153619 -0.0234235 
-0.0621692 0.160081 -0.023389 
-0.0625031 0.160826 -0.0232137 
-0.0627871 0.167922 -0.0459367 
-0.0632448 0.169024 -0.0463488 
-0.063263 0.0445465 0.0315237 
-0.0627006 0.0448784 0.0313956 
